# .PCD v0.7 - Point Cloud Data file format
VERSION 0.7
FIELDS x y z normal_x normal_y normal_z curvature
SIZE 4 4 4 4 4 4 4
TYPE F F F F F F F
COUNT 1 1 1 1 1 1 1
WIDTH 551
HEIGHT 1
VIEWPOINT 0 0 0 1 0 0 0
POINTS 551
DATA ascii
0.0018222197 0.01821064 0.0087383371 -0.0042335144 -0.99523532 0.097409807 0.00067634135
0.0018238722 0.018206937 0.0085925488 -0.0041417219 -0.99535251 0.096209615 0.00062352617
0.001066749 0.018208273 0.0085925488 -0.0026652799 -0.99537933 0.095983312 0.00077837909
0.0010659228 0.018211911 0.0087383371 -0.0024823758 -0.99525911 0.097227193 0.00082205422
0.0027898846 0.018208984 0.0087357182 -0.0059945919 -0.99517059 0.097977392 0.0005416472
0.0027642839 0.018205149 0.0085888365 -0.0061712121 -0.99538791 0.095733285 0.00050016801
0.0037867208 0.01820296 0.0085776979 -0.0061616967 -0.99489731 0.10070483 0.00045331541
0.0038960658 0.01820703 0.0087278625 -0.0055275015 -0.99462968 0.1033506 0.00053663249
0.0036778958 0.018194824 0.0084025012 -0.0065321722 -0.99503231 0.09933804 0.00043801274
0.0036474136 0.018184412 0.0082304198 -0.007159255 -0.99523431 0.097248599 0.00043487831
0.0018212282 0.018208805 0.008830254 -0.0042785187 -0.9952426 0.097333312 0.00068214256
0.001065427 0.018210033 0.008830254 -0.0023758395 -0.99511474 0.098696157 0.00088727707
0.0018207325 0.018200101 0.0088810734 -0.0041653607 -0.99523151 0.097452112 0.00069606147
0.001065179 0.018201305 0.0088810734 -0.0022748457 -0.99515498 0.098293014 0.00091079425
0.0027968546 0.018207189 0.0088289017 -0.0058853813 -0.99514967 0.098196395 0.00054142997
0.0027950949 0.018198475 0.0088807344 -0.0057587428 -0.99510598 0.09864632 0.00055629597
0.0018205672 0.018156774 0.0089105116 -0.004058803 -0.99516481 0.098135009 0.00071290793
0.0018205672 0.0181832 0.0089035677 -0.0040525594 -0.99516273 0.09815634 0.00071259763
0.0010650965 0.018184401 0.0089035677 -0.002274699 -0.99516153 0.098226294 0.00094019627
0.0010650964 0.018157974 0.0089105116 -0.002274699 -0.99516153 0.098226294 0.00094019627
0.0027945084 0.018155148 0.0089105126 -0.0056667388 -0.99510491 0.098661579 0.00056066853
0.0027945084 0.018181572 0.0089035677 -0.0056957314 -0.9951005 0.098703861 0.00056667463
0.0039214999 0.018179536 0.0089035677 -0.0048937462 -0.99445713 0.1050289 0.00062945561
0.0039214999 0.018153112 0.0089105126 -0.0048937462 -0.99445713 0.1050289 0.00062945561
0.0039231521 0.018196469 0.0088797212 -0.0050940961 -0.99453825 0.1042494 0.00060957542
0.0039281086 0.01820525 0.0088248439 -0.0052488432 -0.99454403 0.10418554 0.00062131078
0.0018205671 0.018119492 0.0089146784 -0.0041793268 -0.99523652 0.097400337 0.00070030364
0.0010650964 0.018120691 0.0089146784 -0.002274699 -0.99516153 0.098226294 0.00094019627
0.0018198915 0.018083608 0.008938482 -0.0040026936 -0.99517429 0.098041221 0.00070943637
0.0010647585 0.018084727 0.0089380853 -0.0022762343 -0.9951703 0.098137796 0.00095812138
0.0027945084 0.018117862 0.0089146793 -0.0056667388 -0.99510491 0.098661579 0.00056066853
0.002793395 0.018081974 0.0089386385 -0.005636476 -0.99502558 0.099460773 0.00058744231
0.0018138114 0.018065043 0.0091346549 -0.0038394849 -0.99486291 0.10115831 0.00085369189
0.0018178648 0.01806137 0.0090043359 -0.0038257383 -0.99518025 0.097987652 0.00075243978
0.0010637452 0.018062264 0.0090027498 -0.0023232889 -0.99513471 0.098495461 0.00099974009
0.0010617184 0.018065473 0.0091306912 -0.0024351112 -0.99503541 0.09949214 0.0010537761
0.002783373 0.018063391 0.0091362139 -0.0049107373 -0.99453509 0.10428704 0.00064816372
0.0027900543 0.018059729 0.0090049598 -0.005330014 -0.99493563 0.10037299 0.00060107751
0.0039150338 0.018057469 0.0090049384 -0.004421744 -0.99427742 0.10673779 0.00063460664
0.0039053331 0.01806079 0.0091361608 -0.0036049366 -0.99392563 0.10999496 0.00072108308
0.0039198832 0.018079881 0.0089386329 -0.0048200758 -0.99444622 0.10513529 0.00063573732
0.0039214999 0.01811583 0.0089146793 -0.0048846859 -0.99445456 0.10505348 0.00062890188
0.0018070553 0.018106868 0.0093518551 -0.0034123058 -0.99441195 0.10551424 0.00098352495
0.0010583405 0.018106528 0.0093439268 -0.002046284 -0.99455655 0.10417817 0.0011374234
0.0017945584 0.018177813 0.0096358452 -0.0020353997 -0.99167973 0.12871358 0.0017298153
0.0010496731 0.018176075 0.0096213743 -0.0026868535 -0.99206132 0.12572597 0.0021277661
0.0027722372 0.018105188 0.0093549713 -0.0033418636 -0.99389648 0.11026645 0.00077311171
0.002754905 0.018176287 0.0096416585 -0.00019654752 -0.99064046 0.13649689 0.0014593857
0.0017401873 0.018370878 0.01032385 0.001131451 -0.98383468 0.17907546 0.002533681
0.0017732818 0.018268835 0.0099665402 0.00099960365 -0.98685747 0.16159031 0.0023613865
0.0010317782 0.018264756 0.009941956 -0.0012085304 -0.98821986 0.15303555 0.0027727457
0.0026946825 0.0183709 0.010340521 0.0067186882 -0.98305237 0.18320182 0.0019893234
0.0027296343 0.018267808 0.009976699 0.0034788991 -0.98598152 0.16681829 0.0019462726
0.0038362364 0.018263269 0.0099772057 0.010198436 -0.98461443 0.17444351 0.0015896965
0.0037988792 0.018365715 0.01034209 0.01307531 -0.98182118 0.1893573 0.0016049915
0.003866232 0.018172456 0.0096416716 0.0034696928 -0.98957765 0.14395854 0.00127189
0.0038891651 0.018102041 0.0093548642 -0.0021370291 -0.99333018 0.11528523 0.00080327969
0.020925798 0.013434818 0.0057024634 -0.90723395 -0.38809276 0.16220498 0.037961591
0.020934099 0.013511091 0.0059834961 -0.90881479 -0.38965851 0.1490704 0.034604281
0.020885775 0.013443151 0.0053516775 -0.89550656 -0.39960819 0.19591174 0.040301256
0.020868396 0.013616768 0.0056199776 -0.89950907 -0.39602759 0.18451454 0.037266146
0.020876257 0.013681619 0.0058523878 -0.90284353 -0.39643899 0.16646251 0.034253456
0.020833269 0.013621241 0.0053251479 -0.89860266 -0.39519173 0.19062179 0.038483039
0.020742852 0.013586645 0.0046126223 -0.88532454 -0.39405024 0.24682952 0.047661357
0.020824343 0.013497835 0.0049832277 -0.89318395 -0.39261314 0.21926558 0.045601834
0.020697055 0.013758649 0.0046523642 -0.87929028 -0.40311638 0.25366461 0.045656491
0.020775549 0.013672848 0.0049958359 -0.89252573 -0.39436936 0.21879359 0.043094553
0.020725841 0.013852923 0.0050088735 -0.88461304 -0.40727779 0.22712243 0.039831173
0.020650063 0.013936243 0.0046931817 -0.88242394 -0.40661803 0.23662154 0.040657427
0.020601703 0.014117787 0.0047376249 -0.87012053 -0.42293036 0.25302199 0.040120371
0.020675728 0.014036733 0.0050279228 -0.88483328 -0.4082424 0.22451797 0.037560605
0.020781541 0.013798836 0.0053019975 -0.89297438 -0.4020367 0.20239386 0.038442835
0.02073128 0.013977374 0.0052925604 -0.88962716 -0.40763709 0.20590201 0.036666743
0.020825498 0.013828448 0.0057404488 -0.9007678 -0.39857954 0.17248698 0.03362634
0.020815967 0.013783717 0.0055509987 -0.89958984 -0.39693475 0.18215631 0.035309874
0.020768566 0.013944418 0.0055126185 -0.89224803 -0.40899485 0.19135505 0.03463855
0.02078717 0.013937274 0.0056556417 -0.89579266 -0.40735394 0.17781508 0.03250375
0.020642651 0.01369737 0.0042553684 -0.87957388 -0.3955569 0.26435679 0.048108589
0.020520074 0.013828588 0.003913017 -0.8526507 -0.40754539 0.32694575 0.051804662
0.020599613 0.013865734 0.0043150545 -0.87136042 -0.40572479 0.2758956 0.046756543
0.020479606 0.013992816 0.0039878772 -0.85676861 -0.41277775 0.30913121 0.046008036
0.02037145 0.013978878 0.0035871179 -0.8342787 -0.41125199 0.36722049 0.051898904
0.020333419 0.0141386 0.0036748028 -0.83439988 -0.42706347 0.34841588 0.047205355
0.020294879 0.014299916 0.0037651584 -0.82872701 -0.42950955 0.35879394 0.048047226
0.02025353 0.014462471 0.0038587251 -0.82306147 -0.44808763 0.34898031 0.045357157
0.020438218 0.014160555 0.004065041 -0.84862489 -0.42484632 0.31518468 0.045834877
0.020394107 0.014330764 0.0041449191 -0.8498745 -0.43518984 0.29719216 0.041137155
0.020555399 0.014039059 0.0043764766 -0.86839128 -0.41279525 0.27476642 0.043255728
0.020508995 0.014215834 0.0044405875 -0.85971379 -0.42729893 0.27983543 0.041614782
0.020900365 0.013710227 0.0061426866 -0.90723407 -0.39615291 0.14138348 0.030017955
0.020852184 0.013838024 0.0059944438 -0.90452123 -0.39869371 0.15127668 0.029848171
0.020835632 0.014011298 0.0062248236 -0.90383899 -0.40273646 0.14449371 0.028300263
0.020800354 0.014087535 0.0060755014 -0.89762843 -0.4092963 0.16352296 0.02942246
0.020764254 0.014047306 0.0057040877 -0.89425212 -0.41202223 0.17478798 0.031479515
0.020806523 0.013953911 0.0058549186 -0.89644158 -0.40993753 0.16835605 0.030030651
0.020722162 0.014237416 0.0057500964 -0.88578039 -0.42678213 0.18234611 0.031665996
0.020761985 0.014166346 0.0059205648 -0.89418602 -0.41559514 0.16646951 0.029491536
0.020694839 0.014471992 0.005963543 -0.8788414 -0.44637746 0.16847804 0.030019371
0.020662762 0.014502093 0.0057852292 -0.87866002 -0.44376874 0.17614178 0.031164773
0.020724947 0.014431731 0.0061249193 -0.87908441 -0.45012125 0.15684851 0.02818428
0.020750934 0.014393368 0.0062746941 -0.88286191 -0.44703472 0.14392617 0.026110448
0.020726249 0.014107612 0.005521927 -0.89167559 -0.41383022 0.1834643 0.032238327
0.020683177 0.014158322 0.0053071738 -0.88214022 -0.42379111 0.20549862 0.033792898
0.020682521 0.014290423 0.0055541806 -0.88178903 -0.42973483 0.19436073 0.032996502
0.020636393 0.014341951 0.0053359871 -0.87645304 -0.43285894 0.21086307 0.033440795
0.020551795 0.014301625 0.0047882455 -0.86547953 -0.43114153 0.25507271 0.039117575
0.020625709 0.014222939 0.0050585675 -0.87474936 -0.42548704 0.23189285 0.0364829
0.020501914 0.014486856 0.0048454078 -0.85675168 -0.45041651 0.25120002 0.03700852
0.020577112 0.014408573 0.0050986842 -0.86787534 -0.44114092 0.22844495 0.034068815
0.020531258 0.014590681 0.0051461481 -0.85858512 -0.45552737 0.23521578 0.036826991
0.020453621 0.014672568 0.0049094814 -0.84795594 -0.46420431 0.25590056 0.038410857
0.020590076 0.014528554 0.0053691487 -0.86589801 -0.45008364 0.21827796 0.034827184
0.020630877 0.014509984 0.0055846362 -0.87687671 -0.44157982 0.18998539 0.031282805
0.020459386 0.014394556 0.004508344 -0.85123789 -0.44015414 0.28575918 0.041092172
0.020345481 0.014502424 0.0042279223 -0.83778429 -0.44733003 0.31307086 0.04327631
0.020408029 0.014573368 0.0045792954 -0.84809875 -0.45365477 0.27372593 0.038946748
0.020293612 0.014671922 0.0043117157 -0.82652384 -0.46770212 0.31323004 0.042471573
0.020207068 0.014625923 0.0039560404 -0.81334156 -0.45899162 0.35749447 0.045627497
0.020156816 0.014786338 0.0040540448 -0.80544192 -0.47382444 0.35602474 0.046756767
0.020104099 0.014939783 0.0041496782 -0.79674608 -0.49505797 0.34657377 0.047169257
0.020239778 0.014835658 0.0043939683 -0.81921464 -0.48221931 0.31040609 0.044358823
0.020356374 0.014750406 0.0046529956 -0.83789349 -0.46965936 0.27812675 0.041235559
0.019531144 -0.073485851 0.018120784 -0.7872141 0.17936626 -0.59001839 0.019089645
0.019624712 -0.072137505 0.018168902 -0.85167557 0.15623499 -0.50023913 0.010969063
0.019392855 -0.073165402 0.018187001 -0.80687922 0.18135922 -0.56218749 0.016899524
0.019517744 -0.071960896 0.018218761 -0.85670429 0.15459162 -0.49209678 0.010688897
0.019757608 -0.069844134 0.018252715 -0.9087491 0.088260934 -0.40790328 0.0069971806
0.019701127 -0.070869051 0.01821498 -0.88770604 0.1251225 -0.44308281 0.0080279494
0.019708898 -0.06979762 0.018280562 -0.9110688 0.086709715 -0.40303212 0.0069425059
0.019625833 -0.070776924 0.018252075 -0.89272982 0.12559642 -0.43273443 0.0079537332
0.019551946 -0.070684366 0.01828778 -0.89597839 0.12531479 -0.42605042 0.007896916
0.019661155 -0.069750771 0.018306939 -0.91261297 0.08667887 -0.39953017 0.0069584027
0.019414879 -0.071803771 0.018265819 -0.86246324 0.15646625 -0.48132685 0.010774598
0.019265747 -0.072924301 0.018245827 -0.81772637 0.17642094 -0.54790443 0.015807947
0.019736109 -0.068701878 0.018356714 -0.93164706 0.043851521 -0.36070871 0.0073348102
0.019748541 -0.068620853 0.018348515 -0.93353152 0.042212047 -0.3560015 0.0072772987
0.019741286 -0.06828402 0.018362498 -0.93658715 0.033998456 -0.34878162 0.0072409105
0.019728713 -0.068606041 0.018362517 -0.93463844 0.042465489 -0.35305473 0.0071729277
0.019729037 -0.068769045 0.01836356 -0.93079787 0.046754878 -0.36253187 0.0072811549
0.019722555 -0.068735987 0.018366702 -0.93136954 0.045979477 -0.3611601 0.007358171
0.019724945 -0.068868466 0.018352272 -0.92874998 0.055305596 -0.3665581 0.0073047397
0.019738248 -0.068851985 0.018341571 -0.92947233 0.053670332 -0.36496666 0.0073380223
0.019717034 -0.06888175 0.018361272 -0.92842579 0.054702785 -0.36746851 0.0072455565
0.019724753 -0.06878759 0.018372664 -0.93129057 0.047234435 -0.36120176 0.0072944248
0.01971883 -0.068775631 0.018374883 -0.9313038 0.046667568 -0.36124149 0.0072899675
0.019712331 -0.068882242 0.018371103 -0.92921621 0.055543538 -0.36533836 0.0072468873
0.019667488 -0.069145232 0.018369516 -0.92466372 0.071252137 -0.37405878 0.0074764332
0.019672899 -0.069151856 0.018359253 -0.92405683 0.071137391 -0.37557739 0.0074726674
0.019699888 -0.069170825 0.018336136 -0.92376679 0.070983544 -0.37631956 0.0074138772
0.019682825 -0.069159649 0.018348917 -0.92405683 0.071137391 -0.37557739 0.0074726674
0.019667516 -0.068714015 0.018392008 -0.93349081 0.046831559 -0.35553041 0.0071423133
0.019692196 -0.068740882 0.018383946 -0.93316758 0.048118476 -0.35620636 0.0071742847
0.01966808 -0.068644188 0.018386079 -0.93417209 0.045089222 -0.35396242 0.0071544116
0.019693581 -0.068674602 0.018377639 -0.93398106 0.044882115 -0.35449266 0.0071735717
0.019708639 -0.068760745 0.018378444 -0.93235236 0.047397185 -0.35843077 0.0072369114
0.019711239 -0.068704866 0.018371288 -0.9341839 0.045220796 -0.35391474 0.0071704178
0.019715145 -0.068527125 0.018369948 -0.93498111 0.039848499 -0.35245201 0.0071280906
0.019719517 -0.068114482 0.018378047 -0.93865681 0.029529409 -0.34358624 0.0073932274
0.019695144 -0.068466842 0.018378533 -0.93547875 0.035934463 -0.35155106 0.0072354865
0.019697154 -0.068035282 0.018388551 -0.93928558 0.029869433 -0.34183377 0.0073994636
0.019668447 -0.068426907 0.018387793 -0.93635398 0.035234522 -0.34928465 0.0072591067
0.01966932 -0.067990489 0.01839848 -0.93918359 0.029623661 -0.34213522 0.0073241042
0.021948919 -0.063982837 0.01444858 -0.85537708 -0.068651028 -0.51343656 0.0063278116
0.021762738 -0.064290337 0.014827528 -0.85591984 -0.055899229 -0.51407838 0.005265885
0.021956895 -0.065443717 0.014438308 -0.82963866 -0.067406803 -0.55421662 0.006021413
0.021766167 -0.065669179 0.014800468 -0.83289146 -0.052997068 -0.55089295 0.0051995302
0.021273768 -0.064829044 0.015619424 -0.86012465 -0.013837773 -0.50989604 0.0034791725
0.021536751 -0.064580403 0.015228056 -0.86002183 -0.03149087 -0.50928462 0.0042050495
0.021266051 -0.066101566 0.015579082 -0.84391302 -0.016826214 -0.53621614 0.0053444067
0.021534016 -0.065897621 0.015192193 -0.83529979 -0.036778491 -0.54856324 0.0046538366
0.021526814 -0.067267925 0.015152579 -0.82310033 -0.02377083 -0.56739831 0.0073358165
0.021254539 -0.067428492 0.01553474 -0.82968616 -0.0082430486 -0.55816925 0.007322134
0.021765102 -0.067092657 0.014767523 -0.81815857 -0.037226632 -0.57378632 0.0066815256
0.021961967 -0.066926129 0.014415098 -0.81466371 -0.042185243 -0.57839733 0.0071904585
0.020976599 -0.065012276 0.015970882 -0.86524922 -0.012025415 -0.50119776 0.0028739967
0.020675298 -0.065141253 0.016275009 -0.87315559 -0.0070380843 -0.48739082 0.0035143653
0.020967877 -0.066253521 0.015926745 -0.85817397 -0.0081028678 -0.51329488 0.0056518908
0.020668237 -0.066361956 0.016227761 -0.86734015 -0.0016859844 -0.49771297 0.0055185799
0.020180482 -0.065281078 0.016711565 -0.88967824 0.00061684131 -0.45658776 0.0054425001
0.020399909 -0.065227129 0.016524378 -0.87616628 -0.003537687 -0.48199594 0.0038103571
0.020179553 -0.066482171 0.016660171 -0.88871032 0.0022562144 -0.45846361 0.0068234936
0.020395881 -0.066435352 0.016474711 -0.87944502 0.00027649303 -0.47600049 0.0062904474
0.020388536 -0.067703448 0.016420888 -0.8699432 0.012047877 -0.49300486 0.0065096067
0.020175232 -0.067744583 0.016604656 -0.88565969 0.014250393 -0.46411616 0.0078990189
0.020657873 -0.067640729 0.016176345 -0.86314416 0.010600099 -0.50484639 0.0069588735
0.020955717 -0.067550927 0.01587848 -0.851219 0.001018371 -0.52480966 0.0078389198
0.020047069 -0.065314256 0.01682914 -0.89274675 0.002147834 -0.45055372 0.0055277408
0.019977674 -0.065330535 0.016914967 -0.89461702 0.0028944639 -0.44682437 0.0055892258
0.020047996 -0.066510886 0.016776718 -0.8907553 0.0029660896 -0.45447356 0.00680367
0.019979397 -0.066525444 0.016862225 -0.89345109 0.0035227949 -0.44914666 0.0067884424
0.019942975 -0.065328047 0.017142786 -0.89815748 0.0031997429 -0.43966237 0.0056499275
0.019950306 -0.065333843 0.017006896 -0.89563257 0.0031023128 -0.44478399 0.0056562792
0.019943802 -0.066527881 0.017091567 -0.89751375 0.0045104022 -0.4409636 0.0068348143
0.019951936 -0.066529796 0.016954551 -0.8965295 0.003658707 -0.44296885 0.0067389579
0.01995034 -0.067787923 0.016898142 -0.89388347 0.016583351 -0.44799247 0.0076122242
0.019941747 -0.067789197 0.017036306 -0.89523762 0.018173657 -0.44521824 0.0077485535
0.019977726 -0.067782767 0.016805401 -0.89103162 0.015636427 -0.4536719 0.0078061903
0.020045493 -0.067769676 0.016720198 -0.8879897 0.016341055 -0.45957285 0.0078200214
0.019933686 -0.06531705 0.017360492 -0.90295583 0.0043293633 -0.42971167 0.0057647638
0.019923238 -0.065302968 0.017619647 -0.91994625 0.0074394587 -0.39197385 0.0068494258
0.01993317 -0.066523656 0.017311135 -0.91006684 0.0076190797 -0.41439143 0.0078044948
0.019921022 -0.066516198 0.017573621 -0.91995001 0.0094294939 -0.3919223 0.0079249702
0.019902047 -0.065273985 0.018100845 -0.92949665 0.0083524436 -0.36873603 0.0065236888
0.019912427 -0.06528791 0.017879887 -0.92418569 0.0083019454 -0.38185325 0.006769151
0.019896386 -0.066480562 0.018065009 -0.9309622 0.010144765 -0.36497465 0.0072334455
0.019908335 -0.066504598 0.017839383 -0.92535871 0.01054679 -0.37894607 0.0076158741
0.019902743 -0.067766502 0.017803755 -0.92223173 0.026722174 -0.38571307 0.0084224623
0.019889548 -0.067697607 0.018039728 -0.92942458 0.026499517 -0.36805937 0.0075950678
0.019917062 -0.067785397 0.017525833 -0.91366071 0.024996853 -0.40570819 0.0085946759
0.019930359 -0.067790657 0.017257776 -0.89986473 0.020953385 -0.43566531 0.007633952
0.019864451 -0.068937801 0.018189006 -0.92592466 0.051518667 -0.37417826 0.0075009246
0.019872287 -0.068427995 0.018173594 -0.93022794 0.032396149 -0.36554962 0.0077983956
0.01985932 -0.068624511 0.018236095 -0.93072933 0.041519806 -0.36334413 0.0075322967
0.019864386 -0.068165183 0.018240167 -0.9327606 0.029791372 -0.35926336 0.007845277
0.019854385 -0.069177449 0.018214071 -0.92039406 0.067671902 -0.3850913 0.0074251536
0.019853767 -0.068877786 0.018236257 -0.92770636 0.051202267 -0.36978272 0.0074904985
0.019835433 -0.068515204 0.018281806 -0.93222201 0.035942983 -0.36009747 0.0075087599
0.019849814 -0.068518005 0.018263668 -0.93183452 0.035103057 -0.36118168 0.0076177837
0.01985353 -0.068074711 0.01827536 -0.9342587 0.031183371 -0.35522977 0.0077245976
0.019838557 -0.068070807 0.01829488 -0.93412846 0.031412978 -0.35555196 0.0076850909
0.019830413 -0.068846144 0.018270884 -0.92937231 0.051731024 -0.36550096 0.0074635474
0.019845925 -0.06885016 0.018253252 -0.92944705 0.051187813 -0.36538729 0.0074822549
0.019840358 -0.069252603 0.018234698 -0.9205361 0.066816665 -0.38490114 0.0072303549
0.019820107 -0.0692425 0.018254181 -0.91993034 0.068873473 -0.38598526 0.007280929
0.019815668 -0.068512999 0.018300584 -0.93220508 0.036883168 -0.36004618 0.0074740676
0.0198183 -0.068067715 0.018314429 -0.93412846 0.031412978 -0.35555196 0.0076850909
0.019792749 -0.068523981 0.018318823 -0.93282825 0.039171189 -0.35818589 0.0073228469
0.019794494 -0.068084322 0.018332923 -0.93643606 0.030652031 -0.34949672 0.0075261891
0.019808656 -0.068840906 0.018289888 -0.92993003 0.052384846 -0.36398605 0.0073563531
0.01978383 -0.068838239 0.018308919 -0.92977089 0.0522094 -0.36441761 0.0073807403
0.019768896 -0.068560749 0.018335342 -0.93282193 0.040425755 -0.35806292 0.0073545366
0.019768873 -0.068139546 0.018349284 -0.93847615 0.029455498 -0.3440856 0.007401153
0.019759119 -0.068841919 0.018326633 -0.92977089 0.0522094 -0.36441761 0.0073807403
0.019726709 -0.069187611 0.018318528 -0.92250746 0.070114672 -0.37955743 0.0074394532
0.019758722 -0.069207087 0.01829784 -0.92277646 0.070031196 -0.37891853 0.007317292
0.019791374 -0.069226354 0.018275809 -0.92156464 0.069770165 -0.38190416 0.0072901719
0.019731263 -0.065213546 0.018464753 -0.9482342 0.0095752236 -0.31742752 0.0062095728
0.019754943 -0.065221161 0.018454056 -0.9482342 0.0095752236 -0.31742752 0.0062095728
0.019706728 -0.065203853 0.01847391 -0.94835865 0.0098116631 -0.31704837 0.0061826729
0.019727355 -0.066351525 0.018429434 -0.94989288 0.013418444 -0.31228748 0.0061021335
0.019750604 -0.066367708 0.018418346 -0.94847506 0.014201024 -0.31653357 0.0062911571
0.019703139 -0.066328853 0.018438984 -0.94994169 0.012918615 -0.31215993 0.0060390402
0.019640932 -0.065174684 0.01849422 -0.94923598 0.0099768443 -0.31440666 0.006053424
0.019677795 -0.065191194 0.018483181 -0.94835883 0.0097795194 -0.31704861 0.006183113
0.019637555 -0.066287093 0.018459663 -0.9509927 0.01157425 -0.30899644 0.0058122394
0.019674359 -0.066308841 0.018448472 -0.94995028 0.012585576 -0.31214756 0.006019854
0.019671412 -0.067263201 0.018419473 -0.94626904 0.015300054 -0.32301846 0.0071073938
0.019634757 -0.067235798 0.018430814 -0.94675702 0.01551858 -0.32157469 0.0071189236
0.019699883 -0.067297645 0.018409615 -0.945719 0.015039082 -0.32463726 0.0070275157
0.019746209 -0.067392446 0.018387333 -0.94026434 0.013160158 -0.34019077 0.0068278206
0.019723512 -0.067353889 0.018399203 -0.94215006 0.014162081 -0.33489215 0.0069140051
0.019592598 -0.06515345 0.018508678 -0.95065069 0.010163314 -0.31009665 0.0058743674
0.019538529 -0.065129913 0.018524844 -0.95068043 0.010058835 -0.31000891 0.0057344357
0.019589271 -0.066259205 0.018474326 -0.95128882 0.008718946 -0.30817786 0.005682895
0.019535238 -0.066228338 0.018490719 -0.95128316 0.0083688963 -0.30820501 0.0056586461
0.019436123 -0.065085582 0.018555455 -0.95080972 0.010091366 -0.30961114 0.0055443551
0.019484458 -0.065106474 0.018541008 -0.95071459 0.0099847736 -0.30990672 0.0056535639
0.019432886 -0.066170268 0.01852176 -0.95218986 0.0086719496 -0.30538401 0.005483821
0.019481197 -0.066197641 0.018507108 -0.95137382 0.0081770616 -0.30793029 0.0056072683
0.019478602 -0.06712307 0.018478956 -0.95038903 0.014887584 -0.31070733 0.0067028366
0.019430311 -0.067088589 0.018493827 -0.9512406 0.014902321 -0.30808964 0.0065793283
0.019532604 -0.067161754 0.018462319 -0.94995373 0.014982992 -0.31203118 0.0067798789
0.019586571 -0.067200653 0.018445684 -0.94867593 0.015468623 -0.31587124 0.0069449181
0.019399257 -0.065069653 0.018566474 -0.950764 0.011324991 -0.30970907 0.0053158677
0.019372284 -0.065057933 0.018574933 -0.95103836 0.011747213 -0.30884975 0.0052324915
0.019396033 -0.066149399 0.018532934 -0.95234537 0.0087254029 -0.30489686 0.0054693138
0.019369232 -0.066127561 0.018541634 -0.95229584 0.008638653 -0.30505401 0.0054890551
0.019341696 -0.065044187 0.018587628 -0.95199752 0.011053873 -0.30590606 0.0050468901
0.019353621 -0.065049693 0.018581694 -0.95110393 0.011474653 -0.30865762 0.0052040233
0.01933971 -0.066077404 0.018554881 -0.95215517 0.0074046021 -0.30552521 0.005528701
0.019351067 -0.066097297 0.018548863 -0.95222759 0.0080240648 -0.30528384 0.0055241808
0.019350259 -0.066925205 0.018523168 -0.95240861 0.015175051 -0.30444616 0.0063661002
0.019340267 -0.06686493 0.018529817 -0.95253426 0.015250251 -0.30404934 0.0063411151
0.019367123 -0.067016914 0.018514458 -0.952245 0.015825005 -0.30492464 0.0063189906
0.019393479 -0.067062289 0.018505171 -0.95211732 0.015731832 -0.30532804 0.0063558631
0.019334929 -0.065040685 0.018593598 -0.95201576 0.011072655 -0.30584851 0.0050488207
0.019331638 -0.065038085 0.01860109 -0.95201576 0.011072655 -0.30584851 0.0050488207
0.01933334 -0.066086702 0.018559959 -0.95212752 0.0077941981 -0.30560184 0.0055382489
0.019330358 -0.066103876 0.018566199 -0.95222759 0.0080240648 -0.30528384 0.0055241808
0.01932876 -0.065031238 0.018626584 -0.95299369 0.011495557 -0.30277207 0.0048788199
0.019330142 -0.065035298 0.018611589 -0.95219898 0.011276275 -0.30527025 0.0050265915
0.019328039 -0.066103235 0.018589715 -0.95308685 0.0079797925 -0.30259165 0.0053681601
0.01932917 -0.066107638 0.018575715 -0.95222759 0.0080240648 -0.30528384 0.0055241808
0.019330878 -0.067014568 0.018544681 -0.952245 0.015825005 -0.30492464 0.0063189906
0.019329963 -0.067009956 0.018557826 -0.95237708 0.015860748 -0.30451009 0.0062983725
0.019331802 -0.066990852 0.018536523 -0.952245 0.015825005 -0.30492464 0.0063189906
0.019334525 -0.066913895 0.018532917 -0.95253426 0.015250251 -0.30404934 0.0063411151
0.01932581 -0.065024801 0.018647553 -0.95299369 0.011495557 -0.30277207 0.0048788199
0.019311884 -0.064996228 0.018723063 -0.95416653 0.011309984 -0.29906237 0.004682377
0.01932523 -0.066095911 0.018609405 -0.95308685 0.0079797925 -0.30259165 0.0053681601
0.019310648 -0.066061698 0.018684873 -0.9540717 0.0066955504 -0.29950356 0.00521628
0.019213494 -0.064793564 0.019231932 -0.96255851 0.0069394084 -0.27098489 0.0037978331
0.019277582 -0.064925738 0.01890167 -0.95581824 0.0090997973 -0.29381725 0.0043853624
0.019205781 -0.065816686 0.019203508 -0.96281457 0.0081697376 -0.27003971 0.0043206303
0.019274198 -0.065976612 0.018866211 -0.95631683 0.0059196865 -0.29227209 0.0048592561
0.019273847 -0.066864617 0.01883545 -0.95488191 0.015799187 -0.29656523 0.005836484
0.019201715 -0.066679843 0.019178813 -0.9607811 0.013630711 -0.2769728 0.004994926
0.019312138 -0.066962719 0.018651782 -0.9529894 0.015713966 -0.30259585 0.0062841978
0.019327281 -0.067001924 0.018576384 -0.95237708 0.015860748 -0.30451009 0.0062983725
0.019110218 -0.064579934 0.019762408 -0.9658367 0.0047907927 -0.25910705 0.003155563
0.018976737 -0.064303897 0.020442978 -0.97050005 0.0067016319 -0.24100779 0.0024540059
0.019095309 -0.065557957 0.019746855 -0.96641976 0.004234008 -0.25693372 0.0034409931
0.018952826 -0.065224074 0.020444512 -0.97041857 0.0039656437 -0.24139602 0.0026068946
0.018822039 -0.063984491 0.021223521 -0.97425961 0.0099438187 -0.22520953 0.0019390264
0.018788375 -0.064838707 0.021244746 -0.97308218 0.0052642301 -0.23039801 0.0020908485
0.018761666 -0.065550864 0.02126373 -0.97163278 0.0031053324 -0.23647425 0.0022819615
0.018934743 -0.065995045 0.020445934 -0.96948546 0.0070984853 -0.24504605 0.0028900641
0.019085053 -0.066380687 0.019733302 -0.96503645 0.0099188667 -0.26192793 0.0041011195
0.019641573 0.010227873 0.0035660302 0.17400287 -0.019117016 -0.98455954 0.14662229
0.019532813 0.010417387 0.0031111585 0.12441418 -0.041023381 -0.991382 0.12451777
0.018874196 0.010222926 0.0035655734 0.099709533 -0.024282834 -0.99472028 0.12788202
0.018795058 0.010407489 0.0031102421 0.050287671 -0.042147662 -0.99784505 0.10836113
0.018062981 0.01039768 0.0031093345 -0.022544226 -0.064526469 -0.99766129 0.096303098
0.018112456 0.010218021 0.0035651173 -0.0067637777 -0.024814703 -0.99966913 0.11379527
0.019738497 0.010032489 0.0040393686 -0.21710667 0.0016267708 0.97614652 0.15659478
0.019824374 0.0098320888 0.0045227902 -0.28384659 -0.02430908 0.95856148 0.18265823
0.018944755 0.010030511 0.0040391856 0.13156399 0.032836888 -0.99076366 0.15229227
0.019007295 0.0098315971 0.0045227446 0.16466881 0.059774056 -0.98453605 0.16306219
0.019966142 0.0094196312 0.0054863482 -0.42433596 -0.16954754 0.88949013 0.23233123
0.019899994 0.0096275164 0.005007911 -0.35911462 -0.066518374 0.93091995 0.21053945
0.019110553 0.0094196275 0.0054863477 -0.24630086 -0.33447185 0.9096508 0.21123853
0.019062374 0.0096275164 0.005007911 -0.22365057 -0.10983734 0.96846074 0.18625285
0.018230146 0.0096275164 0.005007911 -0.051517136 0.37603101 -0.92517388 0.1622607
0.01826028 0.0094196312 0.0054863477 0.18328533 -0.7953186 0.57781893 0.15880367
0.018195694 0.0098311016 0.0045226989 0.0066501661 0.13109225 -0.99134785 0.1464494
0.018156579 0.010028547 0.004039003 0.0080174347 0.019381957 -0.99978 0.12473843
0.020023607 0.0092092752 0.0059497189 0.005536254 -0.98887807 0.14862567 0.22607271
0.019152384 0.0092092752 0.0059497189 0.028725091 -0.96263379 0.26927885 0.19710249
0.018286439 0.0092092752 0.0059497184 0.26073915 -0.91408861 0.31057543 0.13649015
0.016774777 0.009514329 0.0050220769 0.055421062 -0.93189329 -0.3584736 0.011939557
0.016774777 0.0093126651 0.0054863738 0.054286793 -0.93140793 -0.35990572 0.012124608
0.016774777 0.0092235394 0.0054899459 0.054286793 -0.93140793 -0.35990572 0.012124608
0.016774777 0.0094194552 0.0050447406 0.055421062 -0.93189329 -0.3584736 0.011939557
0.016774777 0.0097084455 0.0045550941 0.055264384 -0.93194729 -0.35835752 0.011438419
0.016774777 0.0096024638 0.0046041617 0.055260226 -0.93194711 -0.35835862 0.011438631
0.016776145 0.0095711276 0.005010922 0.055416279 -0.93189353 -0.35847396 0.01193981
0.016776143 0.0093661388 0.0054850294 0.054286793 -0.93140793 -0.35990572 0.012124608
0.016776145 0.0097710211 0.0045306045 0.055264384 -0.93194729 -0.35835752 0.011438419
0.016774777 0.010070302 0.0036238395 0.12094212 -0.77311873 -0.62262386 0.058500122
0.016774779 0.0098940823 0.0040881168 0.057505641 -0.93314415 -0.35487327 0.011916244
0.016774777 0.0097748991 0.004162271 0.057505641 -0.93314415 -0.35487327 0.011916244
0.016774777 0.0099390829 0.0037131303 0.059392054 -0.93426734 -0.35159209 0.01206272
0.016776143 0.010145587 0.0035791949 0.13855457 -0.67607576 -0.72368789 0.068163767
0.016776145 0.0099633392 0.0040510399 0.057505641 -0.93314415 -0.35487327 0.011916244
0.016780239 0.0099974759 0.0040386817 0.057505641 -0.93314415 -0.35487327 0.011916244
0.016780237 0.010181748 0.0035643158 0.14605434 -0.65870953 -0.73808539 0.070278652
0.016780239 0.0098028425 0.0045224912 0.054871496 -0.93202567 -0.35821402 0.011208209
0.016780237 0.0093941577 0.0054850858 0.054286793 -0.93140793 -0.35990572 0.012124608
0.016780239 0.0096007623 0.0050074058 0.055416279 -0.93189353 -0.35847396 0.01193981
0.016774777 0.010236174 0.0031649547 0.15274879 -0.66412628 -0.73184973 0.070514694
0.016774777 0.010097333 0.0032508015 0.13197367 -0.77772045 -0.61460066 0.060719524
0.016776145 0.010315279 0.0031220336 0.1432768 -0.58564734 -0.79780251 0.073011495
0.016780239 0.010352748 0.0031077315 0.14543034 -0.58211964 -0.79999167 0.071389779
0.016774779 0.0091043841 0.0059452909 0.055397488 -0.93166 -0.35908332 0.013770479
0.016774777 0.0090124048 0.0059457156 0.055683024 -0.93157458 -0.35926071 0.014083476
0.016776145 0.0091585442 0.0059459624 0.055397488 -0.93166 -0.35908332 0.013770479
0.016780239 0.0091859344 0.005947195 0.055397488 -0.93166 -0.35908332 0.013770479
0.019771876 -0.06737379 0.018373096 -0.94027609 0.013327026 -0.34015182 0.0068778321
0.019798093 -0.067339242 0.018356603 -0.94001043 0.013362655 -0.34088382 0.0070608719
0.019776491 -0.066368222 0.018404238 -0.94847506 0.014201024 -0.31653357 0.0062911571
0.019802887 -0.066363834 0.018387606 -0.94744253 0.013201421 -0.31965351 0.0064633754
0.01984318 -0.067334101 0.018318038 -0.9392516 0.013177836 -0.34297642 0.0070080194
0.019822437 -0.067330122 0.018337956 -0.9392516 0.013177836 -0.34297642 0.0070080194
0.019848904 -0.066369988 0.018348964 -0.94596827 0.013616358 -0.32397327 0.0064961282
0.019827677 -0.066365309 0.01836895 -0.94704437 0.012844546 -0.32084584 0.0064505865
0.019833608 -0.065238342 0.018405203 -0.94761819 0.0093025053 -0.3192699 0.006226535
0.019855332 -0.065243408 0.018385336 -0.94761819 0.0093025053 -0.3192699 0.006226535
0.019808225 -0.065233193 0.018423678 -0.94801545 0.0093120113 -0.318088 0.0062317005
0.019781301 -0.065227583 0.018440165 -0.94801545 0.0093120113 -0.318088 0.0062317005
0.019858582 -0.067338824 0.018297739 -0.93650246 0.014005882 -0.35038114 0.0070916023
0.019870207 -0.06739226 0.018258542 -0.93440801 0.013401866 -0.35595238 0.0069724773
0.019864619 -0.066375226 0.018328337 -0.94454241 0.013717129 -0.32810283 0.0066782786
0.019876568 -0.06639313 0.018287551 -0.94278169 0.01471906 -0.33308557 0.0067916773
0.019879617 -0.067542367 0.018181928 -0.93453503 0.017092654 -0.35546032 0.0069384654
0.019886477 -0.066435829 0.018207086 -0.93382627 0.013043319 -0.35748899 0.0067388504
0.019892899 -0.065263323 0.018242152 -0.93664026 0.0083864788 -0.35019222 0.0066077039
0.01988323 -0.065255158 0.018323528 -0.94346118 0.0090765283 -0.33135879 0.0066808197
0.019871289 -0.065248773 0.018364685 -0.94570166 0.010109721 -0.32487863 0.0064713163
0.00020671674 0.017251052 0.0030584717 -0.00097028568 -0.99216253 0.12495023 0.0018986443
0.00031501535 0.017247057 0.0030551569 -0.002714172 -0.99219126 0.12469666 0.0019019182
0.0001984487 0.017510727 0.0036240665 -0.0023802731 -0.99246895 0.1224736 0.0016725769
0.00020220601 0.017380582 0.003326837 -0.0017530689 -0.99233991 0.12352494 0.0017310332
0.00030223216 0.017507788 0.003622826 -0.002720448 -0.99248153 0.12236454 0.0017074366
0.00030919572 0.017376957 0.0033243578 -0.0027774761 -0.99237359 0.12323535 0.0017024864
0.00057193707 0.017367274 0.0033171251 -0.0050555789 -0.99232846 0.1235259 0.0017256585
0.00055385177 0.017500194 0.0036192089 -0.0046600983 -0.99248457 0.12228131 0.0015275633
0.00058348436 0.017236231 0.0030455186 -0.006446599 -0.99214256 0.12494636 0.0018568957
0.00019619426 0.017639818 0.0039527416 -0.001197455 -0.99321955 0.11624727 0.0013914781
0.00019506698 0.01775996 0.0042816782 -0.0017802673 -0.99418849 0.1076389 0.0013860643
0.00029833484 0.017637415 0.0039522443 -0.0022101707 -0.99320245 0.11637864 0.001377036
0.00029669338 0.017757971 0.0042815534 -0.0020224887 -0.99421 0.10743544 0.0012548285
0.00019469108 0.017941862 0.004815592 -0.0014789191 -0.9947958 0.10187808 0.0010510081
0.00019469115 0.01786327 0.0045796894 -0.0014129254 -0.99458933 0.10387515 0.0012251744
0.00029693628 0.017940372 0.0048155948 -0.0020276352 -0.99476522 0.10216656 0.0010180146
0.00029649734 0.017861579 0.0045796903 -0.0018793015 -0.99459535 0.10381056 0.00110868
0.00054068211 0.017857598 0.0045796968 -0.0031568122 -0.99458313 0.10389616 0.0010964434
0.00054243818 0.017936939 0.0048156031 -0.002755834 -0.99476272 0.10217402 0.0010320472
0.00054048916 0.017753156 0.0042811953 -0.0035061967 -0.99422723 0.10723844 0.0011981203
0.00054412405 0.017631419 0.0039507993 -0.0044047758 -0.99298877 0.11812672 0.0012367893
0.00019469102 0.017987851 0.0049582017 -0.0016994999 -0.99487287 0.10111946 0.0010214456
0.00019469102 0.018006103 0.0050338442 -0.001628048 -0.99489391 0.10091323 0.0010750655
0.00029719988 0.017986478 0.0049582054 -0.0017133594 -0.99487936 0.10105465 0.00097970653
0.00029733247 0.018004801 0.0050338488 -0.0015085833 -0.99491775 0.10067917 0.00097215804
0.00019469118 0.017978929 0.0050895344 -0.0016846855 -0.99491251 0.10072864 0.0010570993
0.00019469108 0.018001508 0.0050688465 -0.0016333803 -0.9949035 0.10081851 0.0010553688
0.00029738218 0.017977653 0.0050895391 -0.0013882947 -0.99492919 0.10056835 0.00098137651
0.00029737843 0.018000223 0.0050688512 -0.0014314702 -0.99492383 0.10061987 0.00097545097
0.0005442067 0.017997343 0.0050688605 -0.0023270538 -0.99484801 0.10135143 0.0010189994
0.00054422155 0.017974781 0.0050895475 -0.0022940096 -0.99485135 0.10131856 0.0010237553
0.00054402294 0.01800186 0.0050338586 -0.0023666061 -0.99484235 0.10140605 0.0010527128
0.00054349267 0.017983377 0.0049582152 -0.0024957561 -0.99483806 0.10144462 0.0010130116
0.00019469135 0.017943244 0.0051222346 -0.0015603007 -0.9949249 0.10060835 0.0010463815
0.00019469153 0.017901439 0.0051609902 -0.0015419953 -0.99492288 0.10062889 0.0010226198
0.00029738815 0.017941987 0.0051222383 -0.0013443726 -0.99493456 0.10051514 0.00098389923
0.00029739531 0.017900212 0.0051609939 -0.0012990059 -0.99494082 0.10045418 0.00097208715
0.00019469188 0.017827436 0.0052328375 -0.0014960562 -0.99492162 0.10064124 0.00099975988
0.00019469172 0.017860509 0.0051998436 -0.0015294248 -0.99492335 0.10062426 0.00099865336
0.00029740934 0.017826244 0.0052328394 -0.0012625118 -0.99495381 0.10032663 0.00092979945
0.00029740267 0.017859302 0.0051998459 -0.0013136163 -0.99494046 0.10045768 0.00096721516
0.00054430205 0.017856468 0.0051998505 -0.0021565482 -0.99486881 0.10115069 0.00099285995
0.0005443283 0.017823422 0.0052328426 -0.0017980584 -0.99490583 0.10079295 0.00098886609
0.000544273 0.01789736 0.0051609995 -0.0021470117 -0.99485862 0.10125115 0.00099832576
0.00054424489 0.01793913 0.0051222462 -0.0022194798 -0.99485278 0.10130622 0.0010113078
0.00019469198 0.017809208 0.0052540149 -0.001483212 -0.99492067 0.10065227 0.0010187036
0.00019469202 0.01780262 0.0052667609 -0.001495805 -0.99492139 0.10064345 0.00098980637
0.00029741428 0.017808029 0.0052540158 -0.001279049 -0.99495226 0.10034068 0.00092797354
0.00029741824 0.017801445 0.0052667614 -0.0012785802 -0.99495161 0.10034807 0.00093839958
0.00019469202 0.017811527 0.0052805035 -0.0014736291 -0.99491996 0.10065918 0.0009983856
0.00019469204 0.017804461 0.005274462 -0.0014825214 -0.99492007 0.10065716 0.00099339301
0.00029742607 0.017810363 0.0052805035 -0.0012849377 -0.99495256 0.10033819 0.00090133765
0.00029742191 0.017803295 0.0052744625 -0.0012788665 -0.99495178 0.10034666 0.00093020155
0.00054437818 0.017800484 0.0052744639 -0.0018477899 -0.99491876 0.10066358 0.00097730011
0.00054439483 0.017807556 0.005280504 -0.0018479838 -0.99491894 0.10066254 0.00097396976
0.0005443634 0.017798634 0.0052667637 -0.0018477899 -0.99491876 0.10066358 0.00097730011
0.00054434774 0.017805215 0.0052540186 -0.0017986138 -0.99491316 0.10072116 0.00097510096
0.00019469204 0.017820613 0.0052882708 -0.0014736291 -0.99491996 0.10065918 0.0009983856
0.00019469205 0.017831611 0.005300032 -0.001455209 -0.99491924 0.10066544 0.00098368269
0.00029743143 0.017819451 0.0052882708 -0.0012849377 -0.99495256 0.10033819 0.00090133765
0.00029743815 0.017830452 0.005300031 -0.0012849377 -0.99495256 0.10033819 0.00090133765
0.00019469205 0.017858895 0.005344599 -0.0013832987 -0.99492645 0.10059489 0.00098465919
0.00019469205 0.017844407 0.0053180521 -0.001455209 -0.99491924 0.10066544 0.00098368269
0.0002974564 0.017857745 0.0053446004 -0.0012640116 -0.99495625 0.10030165 0.00090997684
0.00029744642 0.017843246 0.0053180526 -0.0012779442 -0.99495685 0.10029514 0.00090531522
0.00054447609 0.017840469 0.0053180526 -0.0017595224 -0.9949227 0.10062674 0.00096413313
0.00054451602 0.017854981 0.0053446051 -0.0018194048 -0.9949314 0.10053956 0.00094913738
0.00054444309 0.017827658 0.0053000301 -0.0018070246 -0.99492496 0.10060303 0.00097090215
0.00054441619 0.01781665 0.0052882698 -0.0017910515 -0.99492586 0.10059427 0.0009805219
0.00019469205 0.017874956 0.0053819395 -0.0012963448 -0.99496979 0.10016733 0.00094273197
0.00019506873 0.017892057 0.0054324423 -0.0012603535 -0.99496287 0.10023618 0.00092557748
0.0002974683 0.017873814 0.0053819446 -0.0012763074 -0.99495542 0.10031056 0.00090261031
0.00029806668 0.01789093 0.0054324511 -0.0012274871 -0.99496007 0.10026423 0.00090529601
0.00019845879 0.017927246 0.0055824071 -0.0013554428 -0.99494612 0.10040111 0.00087646197
0.00019619873 0.017909668 0.0054984754 -0.0012755725 -0.99496174 0.10024683 0.00091345172
0.00030336174 0.017926151 0.0055824202 -0.0012434029 -0.99498373 0.10002884 0.00087647227
0.00029983631 0.017908558 0.005498487 -0.0013834093 -0.99496782 0.10018553 0.00089016231
0.00054770766 0.017905902 0.0054985154 -0.0014700188 -0.99497026 0.10016062 0.00093096663
0.00055231719 0.017923549 0.0055824523 -0.0013880176 -0.99495965 0.10026716 0.00090703234
0.00054537534 0.017888233 0.0054324716 -0.0016654207 -0.9949308 0.1005481 0.00096191803
0.00054456363 0.01787108 0.0053819567 -0.0017272305 -0.99492943 0.1005603 0.00095953257
0.00020222551 0.017944267 0.0056866053 -0.0014516843 -0.99495447 0.10031709 0.00086200616
0.00020674556 0.017959967 0.0057989871 -0.0015148231 -0.99495476 0.10031244 0.00082944328
0.00030922759 0.017943183 0.0056866175 -0.0012299735 -0.9949761 0.10010519 0.00086631969
0.00031311013 0.017958926 0.0057993038 -0.0011427429 -0.99497122 0.10015427 0.00085841544
0.00021503241 0.017984396 0.0059999712 -0.0011594086 -0.99494392 0.10042565 0.00081776478
0.00021126567 0.017973596 0.0059074699 -0.0012766916 -0.99493355 0.10052723 0.00082596159
0.00030101149 0.017983552 0.0060017696 -0.0013540989 -0.99491102 0.10074849 0.00082541665
0.00031068563 0.017972659 0.0059087048 -0.001240941 -0.99491966 0.10066486 0.00084040035
0.00052782381 0.017970623 0.0059125186 -0.0011076048 -0.99493182 0.10054558 0.00086457451
0.00047330683 0.017981837 0.0060074436 -0.0010077417 -0.99495399 0.10032728 0.00081948959
0.00055650604 0.01795654 0.0058002761 -0.0012325473 -0.99497372 0.1001287 0.00086308311
0.00055996026 0.017940639 0.0056866463 -0.0014666861 -0.99497598 0.10010306 0.00089403486
0.00021729249 0.01799161 0.0060644085 -0.0010423217 -0.99493468 0.10051774 0.00081650191
0.00021842259 0.017997006 0.0061183292 -0.0009611625 -0.99493688 0.10049709 0.000815804
0.00028314503 0.017990777 0.006065446 -0.0014640046 -0.99494082 0.10045236 0.00083721633
0.00026667316 0.017996144 0.0061182757 -0.0014104284 -0.99493623 0.10049825 0.00079635141
0.00021879959 0.018009381 0.0062648165 -0.00093312515 -0.99492836 0.10058212 0.00079429604
0.0002187994 0.018002341 0.0061792824 -0.0010180839 -0.99493045 0.1005604 0.00079134468
0.00026118325 0.018008534 0.0062642959 -0.00091461057 -0.99492127 0.1006522 0.00076619152
0.00026118281 0.018001476 0.0061788009 -0.0011929697 -0.99490744 0.10078587 0.00079333445
0.00029817084 0.017999748 0.0061784624 -0.0013183519 -0.9948954 0.10090265 0.00079296867
0.000298172 0.018006815 0.0062639234 -0.0010838086 -0.99488997 0.10095888 0.00077497115
0.00032171479 0.017994432 0.006118983 -0.0011644845 -0.99493587 0.10050571 0.00080339843
0.00039234865 0.017989118 0.006069121 -0.00078198378 -0.99492121 0.1006538 0.00081828603
0.00021879989 0.018019894 0.0063924794 -0.00066983345 -0.99492037 0.10066275 0.00077202398
0.00021880021 0.018032141 0.0065411916 -0.00046713129 -0.99487603 0.10110167 0.00075508282
0.00026118392 0.018019071 0.0063920356 -0.00068678189 -0.99490321 0.10083269 0.00075476628
0.00026118464 0.018031357 0.0065408926 -0.00044524096 -0.99485922 0.10126702 0.0007529087
0.00021880078 0.018054891 0.0068174452 -0.00028872406 -0.99483377 0.10151707 0.00077078008
0.00021880052 0.018044386 0.0066898735 -0.0003134463 -0.99487931 0.10106947 0.00075009052
0.00026118601 0.018054185 0.0068174549 -0.00064148166 -0.99484688 0.10138699 0.0007770182
0.00026118537 0.018043643 0.0066897417 -0.00055972423 -0.99486315 0.10122707 0.0007656166
0.00029817692 0.018042017 0.0066897073 -0.0007640507 -0.99487698 0.10108934 0.00079999992
0.00029817849 0.018052587 0.0068175453 -0.00066661392 -0.99485946 0.10126291 0.00080068369
0.0002981752 0.018029699 0.0065407124 -0.000574818 -0.99487519 0.1011094 0.00078010844
0.00029817352 0.018017381 0.0063917292 -0.00061892503 -0.99486303 0.10122885 0.00076959678
0.00021880094 0.018061923 0.0069028269 -0.00054566056 -0.99484766 0.10137952 0.00078082341
0.00021880101 0.018067347 0.0069656642 -0.00063648605 -0.99485117 0.10134503 0.00077543879
0.00026118642 0.018061232 0.0069029075 -0.00060778635 -0.99485409 0.10131727 0.00076217204
0.00026722791 0.018066615 0.0069653518 -0.00061803317 -0.99485314 0.10132552 0.00077022793
0.00021880104 0.018080849 0.0071022799 -0.00073586288 -0.99480373 0.10180937 0.00097039953
0.00021880104 0.01807303 0.0070255999 -0.00069005479 -0.9948231 0.10161886 0.00096013042
0.00030670044 0.018079903 0.0070998711 -0.00076800719 -0.994807 0.10177626 0.00095907046
0.00028535153 0.018072151 0.0070240414 -0.0007235501 -0.99484211 0.10143277 0.00097024371
0.00039483962 0.018069956 0.0070192665 -0.00080376479 -0.99485958 0.10126148 0.00097981107
0.00048023538 0.018077465 0.0070925932 -0.00052410248 -0.99480742 0.1017738 0.0009172149
0.00032234524 0.018064892 0.0069642882 -0.0006776817 -0.99485892 0.10126825 0.00080439349
0.00029817974 0.018059656 0.0069030602 -0.0006246827 -0.99484992 0.10135735 0.00080108707
0.00021880101 0.01809267 0.007215349 -0.00075013802 -0.99478847 0.10195794 0.00098520599
0.00021880098 0.018106151 0.0073459325 -0.00080967019 -0.99478585 0.10198348 0.00098923012
0.00032241785 0.018091919 0.0072137336 -0.00061367027 -0.99481809 0.10166849 0.0009759363
0.00033212273 0.018105663 0.0073455293 -0.00073892879 -0.99479115 0.10193068 0.0010027537
0.00021880091 0.018128769 0.0075841476 -0.00082952011 -0.99471813 0.10264008 0.0010410713
0.00021880094 0.018118965 0.0074751568 -0.00082533021 -0.99478555 0.10198526 0.0010080563
0.00033553119 0.018128457 0.0075841495 -0.00099763775 -0.99474448 0.10238355 0.001001837
0.00033543422 0.018118601 0.0074751582 -0.00083382335 -0.99477565 0.10208189 0.00098664931
0.00059517066 0.018117756 0.0074751615 -0.00088995125 -0.99480665 0.1017796 0.00093712338
0.00059555867 0.018127711 0.0075841541 -0.00099263748 -0.99478239 0.10201499 0.00094957592
0.0005819248 0.018104488 0.0073443148 -0.00099464518 -0.99480879 0.10175686 0.0009347304
0.00054310507 0.018090015 0.0072088675 -0.0006887177 -0.9948324 0.10152977 0.00090922927
0.00021880091 0.018133232 0.0076540331 -0.0008499829 -0.99467373 0.10307002 0.0010549135
0.00021880091 0.018133221 0.0076948018 -0.00091627805 -0.99467486 0.10305844 0.001060623
0.00033559269 0.018132946 0.007654035 -0.00098316546 -0.99470663 0.10275113 0.0010179087
0.00033562709 0.018132942 0.0076948046 -0.0011419507 -0.99473417 0.10248293 0.0010164214
0.00021880091 0.018123277 0.0077289608 -0.00091545447 -0.99467236 0.10308307 0.001074731
0.00021880091 0.018129613 0.0077164476 -0.00086578034 -0.99467206 0.10308653 0.0010750437
0.00033564772 0.018122997 0.0077289627 -0.0012093021 -0.99472809 0.10254035 0.0010220092
0.00033564263 0.018129334 0.0077164504 -0.0011419507 -0.99473417 0.10248293 0.0010164214
0.00059600442 0.018128691 0.0077164541 -0.00096989796 -0.99475878 0.1022445 0.00095657271
0.00059602468 0.018122351 0.0077289678 -0.0010145969 -0.99476123 0.10222109 0.0009492294
0.0005959422 0.018132288 0.0076948088 -0.00096701388 -0.99476022 0.10223135 0.00095294969
0.00059580471 0.01813226 0.0076540392 -0.00092930853 -0.99475312 0.10230086 0.00096338434
0.00021880091 0.018115083 0.0077423337 -0.00090228167 -0.99467111 0.10309552 0.0010766422
0.00021880089 0.018107006 0.007756351 -0.00094968954 -0.99469346 0.10287803 0.001071561
0.00033565058 0.018114796 0.0077423356 -0.0012512103 -0.99475437 0.10228466 0.0010009168
0.00033565189 0.018106725 0.0077563529 -0.0012512103 -0.99475437 0.10228466 0.0010009168
0.00021880089 0.018099135 0.0077854614 -0.001067336 -0.99468309 0.10297754 0.0010828531
0.00021880089 0.018101031 0.0077707986 -0.0011053813 -0.99468124 0.10299553 0.0010752813
0.0003356518 0.018098852 0.0077854614 -0.0013484108 -0.99474627 0.10236213 0.0010185412
0.00033565209 0.018100752 0.0077708005 -0.0013039262 -0.99474907 0.10233553 0.0010238653
0.00059604237 0.018100126 0.0077708033 -0.00099771889 -0.99475849 0.10224713 0.00096157659
0.00059604103 0.018098237 0.0077854642 -0.0010248079 -0.9947592 0.10224027 0.00096140784
0.0005960415 0.01810609 0.0077563566 -0.00098757935 -0.9947598 0.10223511 0.00094982935
0.00059603632 0.018114157 0.0077423402 -0.00098757935 -0.9947598 0.10223511 0.00094982935
0.00021880089 0.018103292 0.0078001232 -0.0010022703 -0.99468714 0.10293908 0.0010680263
0.00021880089 0.018111838 0.0078157829 -0.0010129358 -0.99466521 0.10315133 0.0010887841
0.00033565142 0.018103017 0.0078001241 -0.0014077026 -0.99470705 0.10274146 0.0010248797
0.00033564959 0.018111564 0.0078157829 -0.0014863688 -0.99471313 0.10268207 0.0010344791
0.00021880089 0.018135404 0.007854091 -0.00077430264 -0.9946866 0.102947 0.0010679263
0.00021880091 0.018123101 0.0078334399 -0.00094600511 -0.99466985 0.10310662 0.0010857509
0.00033563492 0.01813514 0.0078540901 -0.0014453718 -0.99469364 0.10287151 0.0010275649
0.00033564455 0.018122831 0.0078334399 -0.0015003246 -0.99470836 0.10272814 0.0010245986
